ply
format ascii 1.0
element vertex 1212
property float x
property float y
property float z
property uchar red
property uchar green
property uchar blue
element face 0
property list uchar int vertex_indices
end_header
0.479580 -0.004421 0.000144 50 41 61
0.479741 -0.007221 0.000132 214 201 210
0.479608 -0.004535 0.000139 218 204 216
0.480915 -0.030901 0.000069 238 226 233
0.480047 -0.011164 0.000100 80 66 84
0.479946 -0.009339 0.000107 242 228 236
0.480287 -0.016264 0.000089 235 221 229
0.480852 -0.029421 0.000071 224 210 223
0.480769 -0.027479 0.000074 139 124 138
0.480108 -0.012373 0.000097 233 221 229
0.479871 -0.008311 0.000115 88 82 90
0.479786 -0.007541 0.000125 66 62 71
0.480296 -0.016471 0.000089 224 207 219
0.479587 -0.004421 0.000142 208 196 208
0.479603 -0.004483 0.000140 92 77 92
0.479603 -0.004483 0.000140 92 77 92
0.480160 -0.013438 0.000094 214 197 213
0.480195 -0.014190 0.000092 130 116 129
0.480772 -0.027530 0.000074 245 233 240
0.479784 -0.007544 0.000126 144 131 141
0.479813 -0.007740 0.000122 237 223 230
0.480842 -0.029167 0.000071 241 229 236
0.480013 -0.010521 0.000102 89 70 91
0.480013 -0.010521 0.000102 89 70 91
0.480143 -0.013077 0.000095 101 84 97
0.480280 -0.016088 0.000089 112 92 110
0.479771 -0.007390 0.000127 244 233 238
0.479771 -0.007390 0.000127 244 233 238
0.480635 -0.024386 0.000078 153 140 150
0.480803 -0.028259 0.000072 190 175 186
0.480819 -0.028622 0.000072 233 221 230
0.480675 -0.025286 0.000077 232 218 229
0.479600 -0.004405 0.000140 213 199 210
0.479592 -0.004375 0.000141 226 213 221
0.479813 -0.007719 0.000121 72 58 66
0.480189 -0.014035 0.000093 243 229 240
0.480638 -0.024452 0.000078 237 221 232
0.480261 -0.015633 0.000090 188 176 188
0.479926 -0.008994 0.000109 241 227 235
0.480654 -0.024803 0.000077 246 238 243
0.479779 -0.007389 0.000126 213 201 211
0.480766 -0.027382 0.000074 135 120 134
0.481162 -0.036787 0.000063 179 163 175
0.480841 -0.029126 0.000071 102 82 107
0.479839 -0.007929 0.000118 233 221 228
0.480003 -0.010305 0.000103 115 99 117
0.480641 -0.024518 0.000078 241 230 237
0.480290 -0.016299 0.000089 143 127 141
0.480668 -0.025119 0.000077 118 101 115
0.480569 -0.022895 0.000080 222 209 221
0.479814 -0.007700 0.000121 226 213 221
0.480239 -0.015137 0.000090 236 221 230
0.480659 -0.024915 0.000077 108 89 108
0.480038 -0.010923 0.000100 82 68 86
0.480133 -0.012831 0.000095 80 66 84
0.480582 -0.023176 0.000080 86 76 91
0.480629 -0.024239 0.000078 244 235 241
0.479792 -0.007497 0.000124 74 57 73
0.480129 -0.012732 0.000095 241 228 237
0.480179 -0.013799 0.000093 244 231 240
0.479770 -0.007327 0.000127 81 62 80
0.480600 -0.023584 0.000079 153 138 149
0.479804 -0.007600 0.000123 138 124 136
0.480041 -0.010964 0.000100 224 212 218
0.480041 -0.010964 0.000100 224 212 218
0.480774 -0.027539 0.000073 185 171 181
0.480779 -0.027657 0.000073 234 223 229
0.480287 -0.016211 0.000089 228 211 222
0.479973 -0.009694 0.000104 95 77 91
0.481180 -0.037186 0.000062 58 43 56
0.480629 -0.024221 0.000078 246 238 244
0.479609 -0.004453 0.000139 209 199 209
0.480000 -0.010221 0.000103 212 198 209
0.479791 -0.007486 0.000124 70 51 68
0.480835 -0.028966 0.000071 238 226 233
0.479755 -0.007237 0.000129 190 177 187
0.479809 -0.007577 0.000121 65 57 69
0.479602 -0.004390 0.000139 106 93 108
0.480233 -0.014984 0.000091 192 175 185
0.480233 -0.014984 0.000091 192 175 185
0.480709 -0.026026 0.000075 92 77 100
0.480709 -0.026026 0.000075 92 77 100
0.479787 -0.007423 0.000125 203 190 199
0.480650 -0.024692 0.000077 239 226 236
0.479796 -0.007472 0.000123 202 188 200
0.480972 -0.032202 0.000067 244 231 239
0.480826 -0.028752 0.000072 129 113 129
0.479841 -0.007855 0.000117 83 66 83
0.480601 -0.023587 0.000079 189 174 187
0.479825 -0.007724 0.000119 227 213 220
0.479785 -0.007390 0.000125 214 204 212
0.480917 -0.030903 0.000069 68 53 72
0.479948 -0.009208 0.000106 88 71 89
0.480633 -0.024289 0.000078 150 134 147
0.480574 -0.022965 0.000080 248 239 243
0.479769 -0.007266 0.000127 237 225 232
0.480229 -0.014862 0.000091 237 221 232
0.479601 -0.004360 0.000139 206 194 205
0.480595 -0.023438 0.000079 247 233 241
0.479748 -0.007189 0.000130 237 224 231
0.479810 -0.007587 0.000121 191 178 188
0.480707 -0.025977 0.000075 233 219 230
0.480036 -0.010786 0.000100 250 239 246
0.480869 -0.029751 0.000070 232 219 230
0.480599 -0.023522 0.000079 239 224 236
0.479773 -0.007285 0.000126 235 222 229
0.480684 -0.025438 0.000076 236 220 232
0.480641 -0.024451 0.000077 189 173 191
0.479825 -0.007702 0.000119 66 46 64
0.479720 -0.006738 0.000132 172 165 176
0.480699 -0.025782 0.000075 130 119 136
0.480614 -0.023844 0.000078 243 226 238
0.480654 -0.024755 0.000077 109 98 108
0.480552 -0.022463 0.000081 242 228 238
0.479784 -0.007349 0.000124 86 66 78
0.480549 -0.022386 0.000081 112 95 111
0.480796 -0.028015 0.000072 85 66 84
0.480796 -0.028015 0.000072 85 66 84
0.480754 -0.027031 0.000074 245 233 241
0.480583 -0.023151 0.000079 237 221 231
0.479933 -0.008929 0.000107 224 211 222
0.480748 -0.026907 0.000074 231 216 228
0.480767 -0.027332 0.000073 236 227 234
0.480299 -0.016453 0.000088 90 78 92
0.480299 -0.016453 0.000088 90 78 92
0.479753 -0.007186 0.000129 234 221 227
0.479600 -0.004301 0.000139 59 54 73
0.479600 -0.004301 0.000139 59 54 73
0.480789 -0.027849 0.000072 196 181 195
0.480211 -0.014419 0.000091 236 225 234
0.479807 -0.007505 0.000121 80 72 84
0.480672 -0.025140 0.000076 231 215 227
0.479585 -0.004243 0.000142 236 220 226
0.479811 -0.007549 0.000121 60 51 60
0.479811 -0.007549 0.000121 60 51 60
0.479762 -0.007205 0.000128 240 226 236
0.480870 -0.029736 0.000070 250 242 246
0.479823 -0.007642 0.000119 225 209 219
0.480261 -0.015573 0.000089 105 89 104
0.480641 -0.024444 0.000077 65 61 70
0.479767 -0.007200 0.000127 72 70 80
0.479717 -0.006650 0.000132 173 164 177
0.479589 -0.004224 0.000141 239 227 234
0.479698 -0.006242 0.000133 104 89 103
0.480855 -0.029399 0.000070 224 213 222
0.479590 -0.004217 0.000140 86 71 86
0.480670 -0.025097 0.000076 148 131 145
0.480967 -0.032028 0.000067 229 215 225
0.480218 -0.014571 0.000091 236 224 231
0.479927 -0.008783 0.000107 230 218 226
0.480777 -0.027545 0.000073 246 238 242
0.479911 -0.008557 0.000109 225 214 223
0.479586 -0.004229 0.000141 189 171 181
0.479820 -0.007602 0.000119 108 87 101
0.479771 -0.007199 0.000126 61 49 62
0.480535 -0.022051 0.000081 232 217 227
0.479810 -0.007486 0.000121 66 62 74
0.480884 -0.030055 0.000070 202 190 202
0.480780 -0.027627 0.000073 188 175 186
0.479601 -0.004271 0.000139 248 239 243
0.480594 -0.023358 0.000079 243 231 236
0.479939 -0.008962 0.000106 235 220 229
0.479581 -0.004193 0.000142 89 77 90
0.479620 -0.004592 0.000137 232 217 225
0.479598 -0.004267 0.000139 227 215 225
0.479585 -0.004185 0.000141 236 219 229
0.480647 -0.024544 0.000077 118 108 117
0.479807 -0.007475 0.000121 175 159 171
0.479750 -0.007134 0.000129 93 78 90
0.480779 -0.027582 0.000072 233 220 230
0.480060 -0.011188 0.000098 248 240 245
0.481157 -0.036573 0.000062 53 46 67
0.479774 -0.007197 0.000125 186 171 181
0.479597 -0.004251 0.000139 127 112 127
0.480073 -0.011442 0.000097 244 236 240
0.479759 -0.007107 0.000128 211 197 209
0.480636 -0.024279 0.000077 177 165 177
0.479592 -0.004188 0.000140 243 230 236
0.481032 -0.033573 0.000065 99 88 103
0.481125 -0.035798 0.000063 70 61 79
0.479777 -0.007239 0.000125 245 230 238
0.481115 -0.035546 0.000063 71 64 81
0.480719 -0.026188 0.000074 218 203 214
0.480206 -0.014280 0.000091 238 224 235
0.480669 -0.025027 0.000076 227 213 224
0.479804 -0.007402 0.000121 252 237 245
0.480079 -0.011562 0.000097 243 230 238
0.479799 -0.006159 0.000114 231 218 225
0.480259 -0.015466 0.000089 189 175 186
0.480551 -0.022373 0.000080 148 130 149
0.480555 -0.022459 0.000080 233 219 228
0.480622 -0.023972 0.000078 229 216 227
0.479594 -0.004208 0.000140 179 166 177
0.479792 -0.007290 0.000123 45 40 53
0.481037 -0.033686 0.000065 244 234 241
0.480653 -0.024659 0.000076 244 233 241
0.479810 -0.007405 0.000120 56 49 62
0.479810 -0.007405 0.000120 56 49 62
0.480054 -0.011026 0.000098 243 230 239
0.480074 -0.011450 0.000097 131 112 133
0.479816 -0.007512 0.000120 233 216 223
0.481116 -0.035563 0.000063 212 202 213
0.479828 -0.007565 0.000118 231 216 226
0.479843 -0.007105 0.000112 199 187 196
0.480658 -0.024765 0.000076 82 66 90
0.480658 -0.024765 0.000076 82 66 90
0.480717 -0.026129 0.000074 101 84 101
0.481125 -0.035766 0.000063 232 217 225
0.479772 -0.007149 0.000125 239 225 233
0.480202 -0.014167 0.000091 92 76 86
0.480243 -0.015093 0.000089 81 74 82
0.479820 -0.007473 0.000119 172 158 170
0.479769 -0.007113 0.000126 120 98 114
0.480699 -0.025692 0.000075 132 115 129
0.480196 -0.014013 0.000091 238 227 234
0.479903 -0.008296 0.000108 64 65 89
0.480855 -0.029337 0.000070 137 121 139
0.480855 -0.029337 0.000070 137 121 139
0.480045 -0.010832 0.000098 245 235 242
0.480041 -0.010749 0.000099 241 231 240
0.479694 -0.006095 0.000133 227 212 221
0.479616 -0.004454 0.000137 227 213 222
0.479771 -0.007102 0.000125 157 141 151
0.480859 -0.029416 0.000070 212 200 209
0.480849 -0.029184 0.000070 215 203 215
0.480107 -0.012101 0.000095 246 235 241
0.479787 -0.007224 0.000123 226 212 221
0.479612 -0.004383 0.000137 169 153 165
0.480240 -0.015015 0.000089 78 63 74
0.480837 -0.028911 0.000070 250 245 248
0.480058 -0.011083 0.000098 250 244 247
0.479818 -0.007462 0.000119 242 231 238
0.479818 -0.007462 0.000119 242 231 238
0.480048 -0.010869 0.000098 236 224 233
0.480048 -0.010871 0.000098 236 224 233
0.480244 -0.015106 0.000089 193 178 189
0.480695 -0.025589 0.000075 242 231 236
0.479934 -0.008670 0.000105 214 198 211
0.480069 -0.011302 0.000097 183 166 179
0.480541 -0.022121 0.000080 243 232 238
0.480947 -0.031493 0.000067 239 225 236
0.480549 -0.022286 0.000080 168 154 165
0.479953 -0.009049 0.000104 244 230 238
0.479751 -0.006997 0.000128 181 170 181
0.479837 -0.006950 0.000112 49 45 57
0.480699 -0.025679 0.000075 235 222 230
0.480877 -0.029839 0.000069 235 221 230
0.480636 -0.024235 0.000077 203 188 202
0.480636 -0.024235 0.000077 203 188 202
0.479781 -0.007215 0.000124 234 221 224
0.479936 -0.008707 0.000105 98 81 95
0.479936 -0.008707 0.000105 98 81 95
0.479779 -0.005672 0.000115 222 208 219
0.479811 -0.007376 0.000120 44 30 51
0.480246 -0.015127 0.000089 53 43 55
0.479585 -0.004135 0.000141 225 212 220
0.479803 -0.007321 0.000121 244 230 236
0.480866 -0.029562 0.000070 238 222 232
0.479580 -0.004115 0.000142 236 225 232
0.479765 -0.007042 0.000126 240 226 232
0.479589 -0.004108 0.000140 232 220 228
0.480615 -0.023756 0.000078 244 230 239
0.480726 -0.026286 0.000074 228 213 227
0.479613 -0.004360 0.000137 223 209 221
0.480154 -0.013062 0.000093 231 222 226
0.480067 -0.011236 0.000097 245 232 241
0.480222 -0.014596 0.000090 241 226 233
0.480621 -0.023883 0.000077 195 179 193
0.480782 -0.027588 0.000072 239 226 235
0.480684 -0.025329 0.000075 100 82 100
0.480684 -0.025329 0.000075 100 82 100
0.480665 -0.024887 0.000076 57 48 70
0.480105 -0.012011 0.000095 105 90 108
0.480301 -0.016407 0.000087 150 138 147
0.479908 -0.008266 0.000107 119 105 113
0.479817 -0.007382 0.000119 65 49 64
0.480176 -0.013540 0.000092 243 233 239
0.480624 -0.023943 0.000077 247 239 242
0.481101 -0.035154 0.000063 229 217 227
0.480248 -0.015163 0.000089 227 211 219
0.480593 -0.023256 0.000078 243 228 237
0.479762 -0.006994 0.000126 97 79 97
0.480030 -0.010463 0.000099 218 208 217
0.480047 -0.010824 0.000098 245 237 244
0.479959 -0.009161 0.000104 243 231 237
0.479889 -0.008024 0.000109 218 203 214
0.480783 -0.027596 0.000072 245 235 241
0.480997 -0.032669 0.000066 243 231 238
0.479806 -0.007287 0.000120 232 219 225
0.480154 -0.013040 0.000093 251 239 246
0.480139 -0.012736 0.000093 247 233 244
0.479733 -0.006876 0.000131 92 80 94
0.479773 -0.007078 0.000125 239 224 230
0.480539 -0.022037 0.000080 129 110 126
0.479603 -0.004209 0.000138 95 82 95
0.480036 -0.010581 0.000098 221 208 220
0.480788 -0.027714 0.000072 160 144 158
0.480618 -0.023795 0.000077 245 229 240
0.479789 -0.005864 0.000114 64 48 64
0.480594 -0.023269 0.000078 171 154 165
0.480846 -0.029085 0.000070 222 208 216
0.480649 -0.024493 0.000076 201 187 199
0.480613 -0.023689 0.000077 144 128 142
0.479790 -0.005890 0.000114 209 197 207
0.480863 -0.029462 0.000070 158 145 157
0.480166 -0.013300 0.000092 138 120 135
0.479737 -0.006890 0.000130 104 88 104
0.481057 -0.034079 0.000064 198 185 195
0.480697 -0.025585 0.000074 227 213 222
0.479591 -0.004067 0.000139 89 77 93
0.480597 -0.023324 0.000078 141 125 140
0.480124 -0.012382 0.000094 249 242 249
0.480321 -0.016852 0.000087 117 102 109
0.479783 -0.007087 0.000123 210 194 202
0.480654 -0.024597 0.000076 110 93 107
0.480527 -0.021757 0.000081 137 123 135
0.480173 -0.013438 0.000092 124 109 121
0.480063 -0.011115 0.000097 225 213 220
0.479772 -0.007025 0.000125 243 230 234
0.480996 -0.032625 0.000066 162 154 166
0.480657 -0.024671 0.000076 214 198 211
0.480060 -0.011053 0.000097 204 188 199
0.480728 -0.026290 0.000073 155 141 151
0.479804 -0.007192 0.000120 194 181 189
0.479800 -0.007175 0.000120 180 167 179
0.480606 -0.023505 0.000078 150 135 147
0.480164 -0.013229 0.000092 203 190 201
0.480036 -0.010559 0.000098 74 59 77
0.480104 -0.011948 0.000095 164 152 166
0.480040 -0.010628 0.000098 124 111 128
0.479938 -0.008661 0.000104 240 225 234
0.479938 -0.008661 0.000104 240 225 234
0.480055 -0.010949 0.000097 87 65 78
0.479578 -0.004015 0.000141 248 234 239
0.479736 -0.006840 0.000130 235 222 233
0.480586 -0.023059 0.000078 200 185 194
0.479737 -0.006858 0.000130 131 117 130
0.480224 -0.014588 0.000090 39 28 45
0.479594 -0.004083 0.000139 195 184 194
0.480738 -0.026520 0.000073 233 220 229
0.480738 -0.026520 0.000073 233 220 229
0.479804 -0.007170 0.000120 234 222 227
0.481000 -0.032697 0.000066 212 201 210
0.480866 -0.029530 0.000069 230 217 226
0.480178 -0.013542 0.000091 214 200 210
0.479734 -0.006805 0.000130 142 128 140
0.480591 -0.023161 0.000078 244 230 236
0.481010 -0.032942 0.000065 223 211 218
0.480836 -0.028811 0.000070 177 163 173
0.480248 -0.015120 0.000089 191 176 185
0.480637 -0.024185 0.000076 86 76 99
0.480058 -0.010998 0.000097 116 100 113
0.480673 -0.025020 0.000075 98 78 92
0.480644 -0.024357 0.000076 247 234 242
0.479576 -0.004015 0.000142 207 193 206
0.480122 -0.012295 0.000094 197 181 192
0.479572 -0.003994 0.000142 237 227 234
0.480232 -0.014763 0.000089 238 223 231
0.480232 -0.014763 0.000089 238 223 231
0.480981 -0.032237 0.000066 238 228 232
0.480874 -0.029709 0.000069 77 64 78
0.480045 -0.010719 0.000098 247 234 242
0.480024 -0.010288 0.000099 90 71 95
0.480156 -0.013043 0.000092 133 117 131
0.480174 -0.013439 0.000091 80 65 74
0.480013 -0.010053 0.000099 247 238 242
0.480183 -0.013628 0.000091 232 217 225
0.479934 -0.008560 0.000104 192 177 188
0.480239 -0.014912 0.000089 60 38 53
0.479589 -0.004057 0.000140 226 212 223
0.480111 -0.012067 0.000094 92 74 105
0.480580 -0.022889 0.000078 248 237 244
0.480580 -0.022889 0.000078 248 237 244
0.480730 -0.026306 0.000073 71 54 69
0.480066 -0.011137 0.000096 84 70 78
0.480058 -0.010975 0.000097 204 191 203
0.479741 -0.006834 0.000129 236 220 232
0.480654 -0.024551 0.000076 248 236 244
0.480665 -0.024802 0.000075 246 233 242
0.479791 -0.007033 0.000121 96 82 95
0.479582 -0.003997 0.000140 93 76 101
0.480743 -0.026621 0.000073 231 218 226
0.480164 -0.013207 0.000092 134 118 129
0.480196 -0.013924 0.000090 91 80 92
0.480702 -0.025658 0.000074 178 166 175
0.480223 -0.014525 0.000089 224 213 219
0.480104 -0.011923 0.000094 238 226 232
0.479569 -0.003977 0.000143 136 119 133
0.479786 -0.006997 0.000122 58 46 61
0.479839 -0.006911 0.000111 224 208 219
0.479590 -0.004014 0.000139 227 211 220
0.480588 -0.023059 0.000078 242 230 236
0.479744 -0.006804 0.000128 207 192 203
0.480106 -0.011929 0.000094 242 228 236
0.480594 -0.023181 0.000078 148 130 146
0.480016 -0.010105 0.000099 251 242 246
0.480193 -0.013833 0.000090 165 154 167
0.480012 -0.010011 0.000099 193 176 189
0.480071 -0.011230 0.000096 103 89 104
0.480571 -0.022665 0.000079 186 173 182
0.480225 -0.014569 0.000089 84 63 78
0.480698 -0.025546 0.000074 250 238 247
0.480113 -0.012079 0.000094 248 240 242
0.479572 -0.003942 0.000142 226 214 225
0.479595 -0.004033 0.000138 228 215 222
0.480108 -0.011967 0.000094 160 138 150
0.479915 -0.008121 0.000105 219 206 215
0.480664 -0.024760 0.000075 201 192 200
0.480857 -0.029253 0.000069 205 190 200
0.480174 -0.013407 0.000091 236 220 230
0.480700 -0.025599 0.000074 253 249 250
0.480180 -0.013535 0.000091 94 81 92
0.480180 -0.013535 0.000091 94 81 92
0.479570 -0.003974 0.000142 244 236 241
0.480051 -0.010803 0.000097 251 242 249
0.480573 -0.022706 0.000078 229 215 222
0.480804 -0.028004 0.000071 250 241 245
0.479874 -0.007554 0.000109 239 224 235
0.480220 -0.014445 0.000089 167 152 164
0.480931 -0.030996 0.000067 166 159 171
0.480012 -0.009981 0.000099 176 158 169
0.480192 -0.013800 0.000090 170 157 171
0.480644 -0.024289 0.000076 232 220 226
0.480866 -0.029466 0.000069 222 208 218
0.480632 -0.024013 0.000076 123 108 119
0.479592 -0.003946 0.000138 148 133 146
0.480610 -0.023530 0.000077 98 80 92
0.480610 -0.023530 0.000077 98 80 92
0.479608 -0.004186 0.000137 204 193 201
0.479608 -0.004186 0.000137 204 193 201
0.479590 -0.004004 0.000139 229 215 225
0.480167 -0.013223 0.000091 178 163 173
0.479572 -0.003913 0.000142 233 220 230
0.479592 -0.004004 0.000139 52 40 60
0.480604 -0.023385 0.000077 241 227 238
0.480953 -0.031522 0.000066 213 203 213
0.480866 -0.029462 0.000069 89 75 90
0.480932 -0.031010 0.000067 243 229 236
0.480053 -0.010829 0.000097 202 187 201
0.479934 -0.008317 0.000103 228 215 227
0.480619 -0.023710 0.000077 98 78 97
0.479759 -0.006751 0.000125 230 217 226
0.479738 -0.006661 0.000128 80 62 79
0.480250 -0.015114 0.000088 52 33 54
0.480638 -0.024139 0.000076 92 80 101
0.479595 -0.004037 0.000138 222 210 218
0.479935 -0.008324 0.000102 162 150 161
0.480625 -0.023838 0.000076 228 215 225
0.480519 -0.021479 0.000080 131 117 128
0.479718 -0.006445 0.000131 219 209 219
0.479755 -0.006649 0.000125 226 213 223
0.480547 -0.022091 0.000079 241 230 236
0.479589 -0.003943 0.000139 206 197 205
0.480598 -0.023229 0.000077 109 92 107
0.479581 -0.003895 0.000140 239 226 230
0.480020 -0.010122 0.000098 187 169 180
0.480857 -0.029226 0.000069 233 221 230
0.479570 -0.003864 0.000142 215 201 213
0.480089 -0.011527 0.000095 83 69 81
0.479585 -0.003915 0.000139 238 225 232
0.480028 -0.010287 0.000098 117 99 111
0.480691 -0.025349 0.000074 151 134 147
0.480589 -0.023018 0.000077 223 208 221
0.481072 -0.034339 0.000063 248 242 245
0.480008 -0.009870 0.000099 116 101 123
0.480008 -0.009870 0.000099 116 101 123
0.480008 -0.009870 0.000099 116 101 123
0.480508 -0.021217 0.000081 242 226 237
0.479909 -0.007924 0.000105 91 83 99
0.480975 -0.032005 0.000066 211 200 210
0.480271 -0.015596 0.000087 207 192 202
0.480806 -0.028008 0.000070 240 227 236
0.480182 -0.013520 0.000090 235 224 231
0.480514 -0.021348 0.000080 245 233 242
0.480175 -0.013360 0.000091 65 52 67
0.480689 -0.025287 0.000074 240 225 234
0.481074 -0.034370 0.000063 133 127 136
0.480156 -0.012929 0.000091 229 214 225
0.480858 -0.029238 0.000069 219 203 218
0.480020 -0.010108 0.000098 247 236 242
0.480140 -0.012586 0.000092 93 73 88
0.480511 -0.021261 0.000080 233 220 227
0.480117 -0.012085 0.000093 185 172 182
0.480850 -0.029046 0.000069 86 77 96
0.479976 -0.009181 0.000100 87 70 86
0.480500 -0.021027 0.000081 225 209 221
0.479999 -0.009664 0.000099 104 87 108
0.479902 -0.007765 0.000105 225 211 223
0.479906 -0.007835 0.000105 94 87 96
0.480172 -0.013297 0.000091 189 178 195
0.479937 -0.008321 0.000102 242 230 237
0.479937 -0.008321 0.000102 242 230 237
0.479949 -0.008585 0.000102 222 207 216
0.480143 -0.012649 0.000092 245 233 242
0.480143 -0.012649 0.000092 245 233 242
0.479989 -0.009456 0.000100 145 128 141
0.480012 -0.009923 0.000099 228 212 224
0.480797 -0.027775 0.000070 208 194 205
0.480004 -0.009754 0.000099 238 224 231
0.479578 -0.003867 0.000140 45 51 70
0.479970 -0.009046 0.000101 213 198 206
0.479983 -0.009319 0.000100 211 198 206
0.480174 -0.013327 0.000091 52 38 54
0.479572 -0.003831 0.000141 155 145 155
0.481052 -0.033815 0.000063 217 204 217
0.480784 -0.027461 0.000071 248 238 246
0.480126 -0.012262 0.000092 119 106 120
0.479593 -0.003943 0.000138 242 231 234
0.480526 -0.021589 0.000080 245 234 243
0.480906 -0.030345 0.000067 232 218 226
0.480906 -0.030345 0.000067 232 218 226
0.480841 -0.028808 0.000069 233 222 231
0.479617 -0.004277 0.000136 215 204 214
0.480503 -0.021081 0.000081 238 222 233
0.480147 -0.012711 0.000092 167 155 163
0.480147 -0.012711 0.000092 167 155 163
0.479978 -0.009206 0.000100 129 113 124
0.480032 -0.010318 0.000097 105 88 100
0.480188 -0.013639 0.000090 81 63 79
0.480188 -0.013639 0.000090 81 63 79
0.479679 -0.005574 0.000132 220 209 218
0.480065 -0.010969 0.000096 246 236 241
0.481004 -0.032680 0.000065 221 205 217
0.480007 -0.009802 0.000099 112 95 111
0.479927 -0.008081 0.000102 241 229 235
0.480249 -0.015042 0.000088 46 33 40
0.480249 -0.015042 0.000088 46 33 40
0.480618 -0.023615 0.000076 239 228 235
0.480703 -0.025565 0.000073 239 223 235
0.480765 -0.026996 0.000071 202 187 200
0.480526 -0.021561 0.000080 91 73 84
0.480526 -0.021561 0.000080 91 73 84
0.480770 -0.027127 0.000071 117 106 119
0.480625 -0.023779 0.000076 236 219 232
0.480718 -0.025903 0.000073 79 65 84
0.480622 -0.023696 0.000076 136 119 132
0.480033 -0.010307 0.000097 92 79 90
0.480844 -0.028865 0.000069 237 224 232
0.480010 -0.009835 0.000098 237 224 233
0.479579 -0.003845 0.000140 196 181 191
0.480004 -0.009732 0.000099 240 226 233
0.480130 -0.012303 0.000092 219 204 215
0.479583 -0.003836 0.000139 238 224 232
0.481042 -0.033562 0.000064 244 230 237
0.480108 -0.011831 0.000093 248 237 244
0.480902 -0.030215 0.000067 77 59 81
0.480522 -0.021456 0.000080 233 216 227
0.479586 -0.003836 0.000139 212 198 208
0.480908 -0.030356 0.000067 238 225 233
0.480918 -0.030601 0.000067 207 194 206
0.479918 -0.007860 0.000103 103 89 100
0.479918 -0.007860 0.000103 103 89 100
0.480607 -0.023345 0.000076 164 150 166
0.480607 -0.023345 0.000076 164 150 166
0.479977 -0.009150 0.000100 93 83 98
0.480138 -0.012480 0.000092 234 222 230
0.480497 -0.020895 0.000081 239 225 234
0.479914 -0.007771 0.000103 207 193 203
0.481049 -0.033710 0.000063 175 162 174
0.480527 -0.021549 0.000079 191 179 190
0.480146 -0.012640 0.000091 166 153 163
0.479828 -0.006610 0.000111 232 221 227
0.480486 -0.020643 0.000081 226 214 223
0.480114 -0.011937 0.000093 244 230 238
0.479949 -0.008546 0.000101 238 223 236
0.480784 -0.027418 0.000070 92 80 96
0.480261 -0.015290 0.000087 147 130 142
0.479880 -0.007248 0.000106 219 205 216
0.480004 -0.009698 0.000098 225 211 223
0.480538 -0.021779 0.000079 233 220 230
0.480624 -0.023710 0.000076 228 211 223
0.480738 -0.026320 0.000072 243 230 238
0.481029 -0.033203 0.000064 227 213 224
0.479593 -0.003877 0.000137 239 223 233
0.479593 -0.003877 0.000137 239 223 233
0.480656 -0.024443 0.000074 232 219 230
0.480245 -0.014902 0.000088 91 75 84
0.479849 -0.006753 0.000108 218 204 216
0.480644 -0.024161 0.000075 87 82 87
0.480644 -0.024161 0.000075 87 82 87
0.480528 -0.021546 0.000079 205 191 203
0.480018 -0.009967 0.000098 91 70 84
0.480002 -0.009642 0.000098 112 94 109
0.480711 -0.025707 0.000073 198 182 190
0.480501 -0.020950 0.000080 92 73 94
0.479983 -0.009252 0.000100 73 58 75
0.480157 -0.012875 0.000091 199 186 196
0.480944 -0.031184 0.000066 239 225 232
0.480493 -0.020780 0.000080 112 95 112
0.480046 -0.010507 0.000096 120 104 118
0.480046 -0.010507 0.000096 120 104 118
0.480950 -0.031327 0.000066 151 139 153
0.480193 -0.013691 0.000089 49 34 48
0.479685 -0.003383 0.000117 136 123 135
0.479874 -0.007089 0.000106 230 214 225
0.480070 -0.010991 0.000095 214 199 211
0.480546 -0.021924 0.000078 247 234 241
0.480621 -0.023606 0.000076 241 225 234
0.480104 -0.011677 0.000093 252 241 248
0.480006 -0.009698 0.000098 240 227 233
0.480517 -0.021280 0.000079 201 188 201
0.480611 -0.023384 0.000076 246 233 239
0.480611 -0.023384 0.000076 246 233 239
0.480503 -0.020973 0.000080 233 217 229
0.479593 -0.003840 0.000137 218 204 215
0.480733 -0.026192 0.000072 102 90 102
0.479646 -0.004728 0.000133 226 214 223
0.480063 -0.010827 0.000095 117 101 120
0.480534 -0.021655 0.000079 217 204 213
0.480637 -0.023958 0.000075 233 218 229
0.480637 -0.023958 0.000075 233 218 229
0.479942 -0.008355 0.000101 70 55 70
0.480785 -0.027396 0.000070 235 220 228
0.480009 -0.009760 0.000098 87 74 87
0.480632 -0.023850 0.000075 97 80 93
0.479892 -0.007257 0.000103 227 214 226
0.480014 -0.009841 0.000098 241 229 236
0.479596 -0.003828 0.000137 86 76 92
0.479681 -0.005418 0.000131 75 61 74
0.479590 -0.003776 0.000137 137 123 137
0.480067 -0.010901 0.000095 245 233 238
0.480723 -0.025942 0.000072 246 237 243
0.479588 -0.003798 0.000138 243 234 238
0.479588 -0.003798 0.000138 243 234 238
0.480760 -0.026791 0.000071 90 73 92
0.480760 -0.026791 0.000071 90 73 92
0.480509 -0.021099 0.000080 110 94 112
0.480100 -0.011580 0.000093 251 239 248
0.479685 -0.003348 0.000117 50 35 48
0.480839 -0.028662 0.000069 231 218 229
0.480204 -0.013908 0.000089 46 30 40
0.481030 -0.033179 0.000063 177 163 169
0.480000 -0.009554 0.000098 93 79 94
0.480642 -0.024072 0.000075 246 234 243
0.480235 -0.014626 0.000088 202 185 195
0.480488 -0.020627 0.000080 93 79 91
0.480791 -0.027513 0.000070 135 121 136
0.480539 -0.021730 0.000078 87 69 83
0.479895 -0.007303 0.000103 38 27 45
0.480750 -0.026547 0.000071 225 210 222
0.480140 -0.012430 0.000091 236 220 228
0.479578 -0.003724 0.000139 243 232 238
0.479986 -0.009255 0.000099 245 236 240
0.480108 -0.011735 0.000092 224 213 221
0.480766 -0.026915 0.000071 235 220 230
0.480730 -0.026075 0.000072 238 223 232
0.479841 -0.006340 0.000107 113 97 108
0.479841 -0.006340 0.000107 113 97 108
0.480031 -0.010134 0.000096 241 226 236
0.479956 -0.008619 0.000100 83 67 84
0.480094 -0.011407 0.000093 164 152 162
0.480628 -0.023726 0.000075 245 231 238
0.480051 -0.010538 0.000095 246 235 242
0.479582 -0.003715 0.000138 154 142 156
0.479996 -0.009438 0.000098 235 223 231
0.479967 -0.008856 0.000100 95 75 96
0.480736 -0.026206 0.000071 216 204 213
0.480823 -0.028245 0.000069 245 234 240
0.480208 -0.013996 0.000089 187 172 175
0.479938 -0.008236 0.000101 225 208 218
0.480663 -0.024525 0.000074 234 219 231
0.480610 -0.023299 0.000075 150 131 147
0.480728 -0.026011 0.000072 109 93 104
0.480006 -0.009642 0.000098 182 170 179
0.480095 -0.011431 0.000093 213 201 211
0.479887 -0.007101 0.000103 230 218 225
0.479851 -0.006544 0.000106 222 207 218
0.479968 -0.008866 0.000100 207 195 203
0.479898 -0.007331 0.000103 175 164 173
0.480938 -0.030972 0.000066 236 221 229
0.480017 -0.009849 0.000097 243 232 237
0.480260 -0.015188 0.000087 209 196 204
0.480002 -0.009550 0.000098 238 226 234
0.480128 -0.012155 0.000091 138 122 136
0.480632 -0.023802 0.000075 214 200 212
0.480131 -0.012213 0.000091 181 170 181
0.480587 -0.022772 0.000076 244 234 240
0.480587 -0.022772 0.000076 244 234 240
0.480108 -0.011688 0.000092 230 215 224
0.479889 -0.007142 0.000103 168 158 168
0.479567 -0.003732 0.000141 73 55 66
0.479950 -0.008484 0.000101 247 236 240
0.480018 -0.009857 0.000097 103 84 99
0.480185 -0.013435 0.000089 216 204 209
0.480704 -0.025444 0.000072 229 217 227
0.480528 -0.021447 0.000078 194 181 191
0.480087 -0.011227 0.000093 217 205 214
0.480726 -0.025951 0.000072 83 70 88
0.479934 -0.008135 0.000101 237 225 231
0.479934 -0.008135 0.000101 237 225 231
0.480663 -0.024495 0.000074 102 86 99
0.480889 -0.029776 0.000067 104 90 107
0.480637 -0.023907 0.000074 222 208 219
0.479809 -0.006096 0.000111 166 154 167
0.479891 -0.007150 0.000103 45 39 49
0.480130 -0.012171 0.000091 39 31 58
0.480130 -0.012171 0.000091 39 31 58
0.480458 -0.019904 0.000081 237 222 232
0.480622 -0.023546 0.000075 226 211 221
0.480561 -0.022173 0.000077 242 228 236
0.479963 -0.008736 0.000100 232 218 227
0.480906 -0.030169 0.000066 233 220 229
0.479998 -0.009436 0.000098 203 187 201
0.480122 -0.011976 0.000091 84 72 86
0.480913 -0.030334 0.000066 104 93 106
0.479816 -0.006161 0.000111 235 221 232
0.479879 -0.006899 0.000104 84 74 84
0.479673 -0.003027 0.000117 147 131 145
0.480009 -0.009645 0.000097 240 230 236
0.480806 -0.027816 0.000069 236 224 231
0.480583 -0.022653 0.000076 210 195 208
0.480124 -0.012027 0.000091 187 176 189
0.480650 -0.024167 0.000074 242 232 239
0.480949 -0.031200 0.000065 230 216 225
0.480940 -0.030970 0.000065 221 209 220
0.480603 -0.023109 0.000075 116 95 117
0.479591 -0.003722 0.000137 212 199 208
0.480014 -0.009740 0.000097 235 219 230
0.479977 -0.009015 0.000099 84 66 83
0.479852 -0.006508 0.000106 240 224 233
0.480785 -0.027300 0.000070 189 174 186
0.479717 -0.004004 0.000115 212 200 206
0.480713 -0.025633 0.000072 237 225 233
0.480587 -0.022729 0.000076 242 228 236
0.480012 -0.009680 0.000097 104 81 98
0.480814 -0.027994 0.000069 189 180 189
0.480722 -0.025837 0.000071 243 233 239
0.479948 -0.008394 0.000100 106 91 101
0.480603 -0.023096 0.000075 216 199 213
0.480128 -0.012093 0.000091 184 169 179
0.480479 -0.020338 0.000080 230 216 227
0.479994 -0.009345 0.000098 93 79 96
0.480992 -0.032202 0.000064 101 86 97
0.480040 -0.010245 0.000095 224 209 219
0.479960 -0.008652 0.000100 234 221 230
0.479951 -0.008462 0.000100 229 214 224
0.479872 -0.006738 0.000104 93 83 95
0.479988 -0.009209 0.000098 239 225 236
0.480576 -0.022469 0.000076 80 66 81
0.479774 -0.005353 0.000113 226 212 222
0.479632 -0.002134 0.000119 234 221 230
0.479817 -0.005788 0.000108 164 150 158
0.480533 -0.021516 0.000078 238 225 232
0.480777 -0.027118 0.000070 242 229 236
0.479922 -0.007838 0.000102 64 46 66
0.480076 -0.010957 0.000093 105 93 113
0.480649 -0.024119 0.000074 179 163 176
0.479927 -0.007925 0.000101 215 200 212
0.480616 -0.023367 0.000075 245 235 241
0.480881 -0.029553 0.000067 231 214 225
0.479720 -0.004040 0.000115 205 192 199
0.479943 -0.008274 0.000101 177 161 170
0.480000 -0.009430 0.000097 218 204 215
0.480653 -0.024211 0.000074 235 221 230
0.480502 -0.020815 0.000079 141 123 137
0.479847 -0.006377 0.000106 206 194 205
0.480469 -0.020097 0.000080 113 94 111
0.479930 -0.007989 0.000101 103 90 103
0.480576 -0.022456 0.000076 217 201 213
0.480498 -0.020739 0.000079 244 231 238
0.480947 -0.031111 0.000065 226 211 222
0.479939 -0.008179 0.000101 240 228 235
0.480608 -0.023184 0.000075 137 118 130
0.479954 -0.008497 0.000100 245 235 241
0.480009 -0.009594 0.000097 213 198 207
0.479634 -0.002146 0.000119 103 84 102
0.480010 -0.009622 0.000097 214 198 208
0.480112 -0.011717 0.000091 156 143 156
0.480015 -0.009713 0.000096 236 221 229
0.480873 -0.029353 0.000067 143 128 142
0.480977 -0.031826 0.000064 211 199 210
0.480980 -0.031898 0.000064 201 187 198
0.479677 -0.003081 0.000117 40 28 43
0.480816 -0.027999 0.000068 226 214 223
0.480511 -0.021010 0.000079 234 221 229
0.480582 -0.022576 0.000076 249 239 245
0.480521 -0.021224 0.000078 236 222 230
0.480688 -0.025010 0.000072 121 104 120
0.480575 -0.022407 0.000076 111 92 108
0.480755 -0.026562 0.000070 79 64 81
0.480076 -0.010926 0.000093 186 172 184
0.480076 -0.010926 0.000093 186 172 184
0.480206 -0.013864 0.000088 57 47 61
0.479601 -0.003753 0.000135 246 240 243
0.480019 -0.009774 0.000096 244 229 238
0.480739 -0.026193 0.000071 85 72 87
0.480009 -0.009579 0.000097 78 65 76
0.480132 -0.012146 0.000091 116 113 125
0.480759 -0.026645 0.000070 233 220 228
0.480152 -0.012626 0.000090 154 136 150
0.480692 -0.025076 0.000072 238 226 233
0.480680 -0.024810 0.000072 244 233 238
0.479994 -0.009287 0.000098 228 213 223
0.480902 -0.030025 0.000066 212 200 213
0.480122 -0.011922 0.000091 227 213 219
0.479827 -0.005948 0.000107 240 226 236
0.480073 -0.010834 0.000093 236 224 233
0.480586 -0.022641 0.000076 229 215 226
0.480146 -0.012470 0.000090 212 194 208
0.479916 -0.007669 0.000102 108 91 102
0.480764 -0.026766 0.000070 240 226 235
0.480004 -0.009473 0.000097 238 225 232
0.479630 -0.002054 0.000119 218 205 214
0.480780 -0.027123 0.000069 78 61 78
0.480199 -0.013677 0.000088 238 228 235
0.479634 -0.002131 0.000118 151 138 153
0.480604 -0.023051 0.000075 194 180 192
0.480635 -0.023750 0.000074 130 115 136
0.480571 -0.022302 0.000076 246 235 243
0.479582 -0.003627 0.000138 234 218 228
0.480969 -0.031600 0.000064 121 106 119
0.480562 -0.022094 0.000076 228 218 226
0.480373 -0.017832 0.000083 206 190 201
0.480963 -0.031444 0.000064 190 178 190
0.479693 -0.005522 0.000129 216 205 214
0.480053 -0.010403 0.000094 240 229 237
0.480053 -0.010403 0.000094 240 229 237
0.479978 -0.008939 0.000098 250 246 248
0.480744 -0.026267 0.000070 237 227 233
0.480511 -0.020955 0.000078 227 212 222
0.479827 -0.005933 0.000107 152 137 148
0.480448 -0.019577 0.000081 105 92 109
0.479877 -0.006764 0.000103 134 116 130
0.479948 -0.008334 0.000100 235 221 228
0.480039 -0.010139 0.000095 239 223 229
0.480679 -0.024768 0.000072 122 106 122
0.480749 -0.026395 0.000070 151 136 148
0.480462 -0.019885 0.000080 112 99 117
0.480462 -0.019885 0.000080 112 99 117
0.479814 -0.005644 0.000107 128 111 126
0.480666 -0.024459 0.000073 188 177 188
0.480955 -0.031258 0.000064 91 78 91
0.479991 -0.009191 0.000097 90 79 90
0.479991 -0.009191 0.000097 90 79 90
0.480612 -0.023208 0.000075 172 156 169
0.479597 -0.003699 0.000135 224 211 222
0.480017 -0.009696 0.000096 136 119 131
0.480573 -0.022325 0.000076 236 223 230
0.480494 -0.020568 0.000079 102 86 104
0.480040 -0.010134 0.000095 223 208 215
0.480723 -0.025778 0.000071 225 211 222
0.480593 -0.022766 0.000075 248 237 244
0.480008 -0.009515 0.000096 103 88 104
0.480511 -0.020938 0.000078 176 162 172
0.479589 -0.003645 0.000137 46 38 44
0.480053 -0.010399 0.000094 246 237 242
0.480028 -0.009906 0.000095 244 231 237
0.480918 -0.030363 0.000065 235 222 231
0.480918 -0.030363 0.000065 235 222 231
0.479605 -0.003782 0.000135 236 224 231
0.480594 -0.022785 0.000075 232 222 227
0.480468 -0.019996 0.000080 136 120 136
0.480089 -0.011146 0.000092 120 108 127
0.480558 -0.021971 0.000076 244 230 238
0.480558 -0.021971 0.000076 244 230 238
0.479583 -0.003620 0.000138 216 203 216
0.480165 -0.012878 0.000089 225 209 218
0.479950 -0.008352 0.000100 71 62 74
0.479950 -0.008352 0.000100 71 62 74
0.480676 -0.024666 0.000072 245 233 239
0.480953 -0.031198 0.000064 204 195 205
0.480098 -0.011344 0.000092 55 47 61
0.479796 -0.005680 0.000111 242 230 239
0.479800 -0.005731 0.000111 238 224 233
0.480529 -0.021320 0.000077 246 233 240
0.479625 -0.001893 0.000119 239 228 235
0.480703 -0.025289 0.000071 69 54 73
0.480572 -0.022289 0.000076 211 193 209
0.480668 -0.024477 0.000073 99 88 102
0.479835 -0.006043 0.000106 167 153 165
0.480847 -0.028658 0.000067 61 46 62
0.480907 -0.030089 0.000066 122 107 120
0.480604 -0.023015 0.000075 250 242 247
0.479794 -0.005631 0.000111 204 192 200
0.480794 -0.027418 0.000069 234 221 230
0.480489 -0.020437 0.000079 222 208 217
0.480677 -0.024672 0.000072 209 194 206
0.480677 -0.024672 0.000072 209 194 206
0.479579 -0.003554 0.000138 242 229 238
0.480484 -0.020317 0.000079 99 84 99
0.480696 -0.025106 0.000072 87 69 87
0.480443 -0.019433 0.000081 209 196 208
0.480440 -0.019362 0.000081 118 105 117
0.479809 -0.005495 0.000108 219 205 213
0.480103 -0.011444 0.000091 232 217 226
0.479850 -0.006367 0.000105 242 228 236
0.479814 -0.005602 0.000107 223 209 220
0.480434 -0.019228 0.000081 242 227 233
0.480054 -0.010364 0.000093 192 179 188
0.480902 -0.029946 0.000066 210 198 212
0.479795 -0.005623 0.000111 247 238 241
0.479881 -0.006837 0.000103 226 209 218
0.479881 -0.006837 0.000103 226 209 218
0.480673 -0.024568 0.000072 240 225 236
0.480538 -0.021506 0.000077 105 98 111
0.480538 -0.021506 0.000077 105 98 111
0.479806 -0.005440 0.000108 105 88 107
0.479949 -0.008318 0.000100 199 185 192
0.480686 -0.024875 0.000072 225 215 224
0.479968 -0.008674 0.000098 242 229 235
0.480864 -0.029054 0.000067 230 213 223
0.480852 -0.028756 0.000067 119 102 118
0.480532 -0.021376 0.000077 251 242 247
0.479796 -0.005633 0.000111 82 66 87
0.480077 -0.010839 0.000092 227 211 224
0.480436 -0.019271 0.000081 209 197 206
0.480736 -0.026043 0.000070 162 145 157
0.480083 -0.010968 0.000092 196 182 193
0.479866 -0.006482 0.000103 235 224 230
0.479605 -0.001498 0.000120 234 220 229
0.480675 -0.024616 0.000072 213 199 213
0.479585 -0.003611 0.000137 167 151 164
0.479572 -0.003534 0.000139 111 97 110
0.479802 -0.005353 0.000108 228 213 222
0.480775 -0.026942 0.000069 232 219 226
0.480827 -0.028168 0.000068 102 86 101
0.479584 -0.003560 0.000137 231 216 226
0.479851 -0.006360 0.000105 159 143 155
0.480437 -0.019290 0.000081 111 86 112
0.480437 -0.019290 0.000081 111 86 112
0.479928 -0.007850 0.000100 218 201 211
0.479680 -0.005200 0.000130 50 36 52
0.480526 -0.021225 0.000077 248 242 244
0.480431 -0.019141 0.000081 234 220 228
0.480912 -0.030168 0.000065 213 201 213
0.480550 -0.021748 0.000076 105 91 105
0.480153 -0.012554 0.000089 222 205 214
0.480712 -0.025452 0.000071 241 225 235
0.480581 -0.022451 0.000075 102 93 98
0.480629 -0.023546 0.000073 101 86 101
0.480204 -0.013738 0.000088 201 186 195
0.479930 -0.007893 0.000100 164 147 159
0.480678 -0.024660 0.000072 199 187 200
0.480678 -0.024660 0.000072 199 187 200
0.480099 -0.011312 0.000091 229 213 221
0.480739 -0.026093 0.000070 115 99 115
0.480466 -0.019894 0.000080 83 68 84
0.480777 -0.026968 0.000069 244 231 236
0.479978 -0.008840 0.000098 76 50 69
0.480475 -0.020078 0.000079 240 225 233
0.480142 -0.012303 0.000090 200 183 192
0.480142 -0.012303 0.000090 200 183 192
0.480588 -0.022584 0.000075 173 155 166
0.479932 -0.007925 0.000100 230 214 224
0.480681 -0.024727 0.000072 91 76 91
0.479911 -0.007479 0.000101 196 178 190
0.479638 -0.004347 0.000132 209 196 208
0.480031 -0.009865 0.000094 91 71 84
0.480720 -0.025633 0.000071 67 56 68
0.480072 -0.010714 0.000092 237 226 231
0.480072 -0.010714 0.000092 237 226 231
0.480570 -0.022184 0.000075 242 229 236
0.480085 -0.010983 0.000092 232 217 224
0.480696 -0.025057 0.000071 238 224 234
0.480845 -0.028575 0.000067 222 209 218
0.480095 -0.011214 0.000091 181 164 174
0.480062 -0.010481 0.000093 249 234 245
0.480685 -0.024803 0.000072 137 123 138
0.480044 -0.010113 0.000094 250 237 245
0.480452 -0.019579 0.000080 248 236 241
0.480680 -0.024681 0.000072 228 211 221
0.480731 -0.025890 0.000070 173 159 170
0.479647 -0.002318 0.000117 40 26 39
0.480079 -0.010856 0.000092 91 73 87
0.480864 -0.029002 0.000066 222 210 220
0.479905 -0.007324 0.000101 73 55 69
0.479910 -0.007425 0.000101 60 46 59
0.479910 -0.007425 0.000101 60 46 59
0.480721 -0.025637 0.000070 199 187 198
0.479768 -0.005018 0.000112 64 51 63
0.480100 -0.011308 0.000091 235 220 228
0.480013 -0.009503 0.000095 112 96 110
0.480473 -0.020013 0.000079 237 222 233
0.479644 -0.002243 0.000117 207 193 199
0.480037 -0.009958 0.000094 232 221 230
0.480559 -0.021920 0.000076 109 95 110
0.480559 -0.021920 0.000076 109 95 110
0.480079 -0.010850 0.000092 214 197 209
0.480715 -0.025486 0.000071 75 62 73
0.480715 -0.025486 0.000071 75 62 73
0.479843 -0.006155 0.000105 224 211 218
0.480417 -0.018807 0.000081 95 79 96
0.479959 -0.008427 0.000099 114 100 113
0.480728 -0.025791 0.000070 234 218 230
0.480509 -0.020793 0.000078 223 207 217
0.480516 -0.020954 0.000077 241 229 235
0.480091 -0.011099 0.000091 218 204 215
0.479573 -0.003493 0.000138 72 57 69
0.479973 -0.008695 0.000098 213 203 213
0.480033 -0.009859 0.000094 162 150 159
0.479627 -0.001869 0.000118 224 210 219
0.480696 -0.025036 0.000071 228 215 224
0.479807 -0.005387 0.000107 160 146 158
0.480680 -0.024659 0.000072 235 220 231
0.480010 -0.009415 0.000095 237 220 232
0.480103 -0.011371 0.000091 46 47 59
0.480582 -0.022409 0.000075 212 196 207
0.479597 -0.003639 0.000135 231 216 220
0.480070 -0.010624 0.000092 104 91 107
0.480035 -0.009901 0.000094 77 65 82
0.479900 -0.007185 0.000101 79 62 74
0.480896 -0.029734 0.000065 236 223 229
0.480498 -0.020539 0.000078 218 202 211
0.480671 -0.024446 0.000072 237 222 233
0.480482 -0.020176 0.000079 186 170 178
0.479825 -0.005762 0.000106 219 205 215
0.480675 -0.024539 0.000072 149 133 145
0.480539 -0.021443 0.000076 184 166 180
0.480506 -0.020698 0.000078 122 108 126
0.479572 -0.003502 0.000139 233 218 228
0.480027 -0.009721 0.000094 209 193 203
0.479800 -0.005234 0.000107 241 232 236
0.480548 -0.021634 0.000076 245 236 241
0.480866 -0.029005 0.000066 171 159 171
0.480706 -0.025254 0.000071 65 48 62
0.480039 -0.009943 0.000094 235 223 231
0.479671 -0.002815 0.000116 218 203 213
0.479606 -0.003676 0.000134 92 74 88
0.479828 -0.005821 0.000106 69 51 68
0.479928 -0.007770 0.000100 223 209 216
0.480144 -0.012295 0.000089 85 68 78
0.479792 -0.005475 0.000111 95 84 101
0.479792 -0.005475 0.000111 95 84 101
0.480460 -0.019693 0.000079 243 225 235
0.480495 -0.020458 0.000078 115 95 113
0.480503 -0.020631 0.000078 119 103 119
0.479846 -0.005995 0.000104 228 216 224
0.479610 -0.003764 0.000133 92 75 90
0.480470 -0.019895 0.000079 243 227 238
0.479954 -0.008280 0.000098 187 172 183
0.479937 -0.007942 0.000099 234 218 230
0.480516 -0.020911 0.000077 192 176 188
0.480099 -0.011246 0.000091 225 208 220
0.480759 -0.026495 0.000069 141 126 138
0.479571 -0.003473 0.000139 230 214 224
0.479795 -0.005128 0.000108 226 213 224
0.479849 -0.006047 0.000104 209 194 204
0.479785 -0.005355 0.000111 150 135 147
0.480067 -0.010521 0.000092 232 221 231
0.479624 -0.004003 0.000132 122 111 124
0.480480 -0.020112 0.000078 239 224 233
0.479683 -0.003072 0.000115 190 179 188
0.479941 -0.008013 0.000099 235 220 231
0.479774 -0.005110 0.000111 218 205 213
0.479774 -0.005110 0.000111 218 205 213
0.480596 -0.022687 0.000074 232 214 225
0.480482 -0.020152 0.000078 128 101 126
0.479619 -0.001656 0.000118 211 197 207
0.480855 -0.028730 0.000066 42 37 56
0.479915 -0.007490 0.000100 215 199 212
0.480685 -0.024735 0.000071 197 183 194
0.480702 -0.025139 0.000071 236 225 231
0.479592 -0.003531 0.000135 229 217 226
0.479936 -0.007921 0.000099 99 80 103
0.479936 -0.007921 0.000099 99 80 103
0.479858 -0.006221 0.000103 64 47 58
0.480418 -0.018746 0.000081 229 217 225
0.479571 -0.003467 0.000139 210 195 207
0.480521 -0.020996 0.000077 225 212 220
0.480521 -0.020996 0.000077 225 212 220
0.480258 -0.014933 0.000086 210 195 201
0.480484 -0.020181 0.000078 219 201 216
0.479612 -0.003737 0.000133 191 177 188
0.479946 -0.008112 0.000099 97 80 97
0.480608 -0.022961 0.000074 167 151 165
0.480568 -0.022049 0.000075 239 226 233
0.480542 -0.021450 0.000076 104 83 106
0.480092 -0.011072 0.000091 198 181 193
0.480603 -0.022835 0.000074 235 220 228
0.480069 -0.010565 0.000092 87 70 88
0.480069 -0.010565 0.000092 87 70 88
0.480418 -0.018760 0.000081 127 107 126
0.479911 -0.007393 0.000101 110 93 105
0.480408 -0.018532 0.000081 229 217 225
0.479848 -0.006012 0.000103 229 214 225
0.479607 -0.001432 0.000119 124 106 120
0.480253 -0.014816 0.000086 57 39 51
0.480445 -0.019320 0.000080 224 208 219
0.479610 -0.003726 0.000133 126 114 127
0.480448 -0.019385 0.000080 203 183 197
0.480133 -0.012004 0.000089 212 196 204
0.480431 -0.019024 0.000080 132 114 128
0.479886 -0.006851 0.000102 226 210 220
0.480663 -0.024213 0.000072 181 166 180
0.480478 -0.020041 0.000078 221 205 214
0.479698 -0.005459 0.000128 71 52 68
0.479947 -0.008124 0.000099 244 230 238
0.480121 -0.011732 0.000090 92 78 85
0.480481 -0.020096 0.000078 213 200 211
0.480589 -0.022518 0.000074 193 177 189
0.480135 -0.012048 0.000089 103 88 96
0.480881 -0.029331 0.000065 214 204 214
0.479914 -0.007442 0.000100 112 95 110
0.480420 -0.018766 0.000081 246 236 239
0.479937 -0.007903 0.000099 137 118 134
0.480528 -0.021134 0.000076 141 124 136
0.480445 -0.019313 0.000080 107 86 100
0.480661 -0.024144 0.000072 101 87 101
0.480405 -0.018440 0.000081 241 230 237
0.480810 -0.027642 0.000067 150 135 148
0.479908 -0.007291 0.000101 232 215 225
0.480395 -0.018230 0.000082 213 202 211
0.479908 -0.007294 0.000101 232 215 225
0.479893 -0.006983 0.000101 167 150 162
0.480079 -0.010760 0.000091 229 214 221
0.480757 -0.026377 0.000069 228 212 222
0.480048 -0.010082 0.000093 238 226 233
0.480549 -0.021573 0.000075 244 235 239
0.480071 -0.010575 0.000092 219 202 214
0.480033 -0.009759 0.000093 136 116 133
0.479957 -0.008286 0.000098 101 83 101
0.480589 -0.022487 0.000074 219 206 215
0.479825 -0.005699 0.000106 244 231 237
0.479601 -0.003614 0.000134 111 101 113
0.480029 -0.009672 0.000093 231 220 227
0.480640 -0.023656 0.000072 231 216 227
0.480097 -0.011155 0.000090 221 207 215
0.480097 -0.011155 0.000090 221 207 215
0.480443 -0.019242 0.000080 233 217 228
0.480667 -0.024270 0.000071 195 181 191
0.480497 -0.020416 0.000077 229 215 223
0.480670 -0.024351 0.000071 214 199 210
0.480756 -0.026343 0.000069 182 165 178
0.479611 -0.001470 0.000118 110 94 103
0.480422 -0.018794 0.000080 232 217 228
0.480064 -0.010393 0.000092 230 216 225
0.479700 -0.005466 0.000128 132 118 130
0.480416 -0.018655 0.000081 232 218 227
0.479587 -0.003546 0.000136 167 151 162
0.479944 -0.008018 0.000098 136 122 135
0.479827 -0.005710 0.000105 170 154 163
0.480512 -0.020734 0.000077 164 148 160
0.479821 -0.005613 0.000106 104 95 111
0.480060 -0.010309 0.000092 163 147 161
0.480060 -0.010309 0.000092 163 147 161
0.480653 -0.023943 0.000072 234 221 230
0.480618 -0.023146 0.000073 215 201 212
0.480410 -0.018533 0.000081 110 96 114
0.480410 -0.018533 0.000081 110 96 114
0.480410 -0.018533 0.000081 110 96 114
0.480391 -0.018119 0.000082 231 217 225
0.480574 -0.022127 0.000074 83 66 84
0.480051 -0.010104 0.000092 110 93 112
0.480699 -0.025000 0.000070 242 230 238
0.480023 -0.009527 0.000094 203 189 201
0.480610 -0.022945 0.000073 207 193 205
0.480603 -0.022780 0.000073 177 161 175
0.480707 -0.025191 0.000070 153 139 151
0.480803 -0.027436 0.000067 167 155 165
0.480039 -0.009854 0.000093 107 94 109
0.479977 -0.008653 0.000096 65 53 65
0.480733 -0.025789 0.000069 230 215 225
0.480733 -0.025789 0.000069 230 215 225
0.480554 -0.021673 0.000075 130 113 128
0.479571 -0.003380 0.000138 233 217 222
0.479891 -0.006900 0.000101 170 155 166
0.480565 -0.021926 0.000075 242 234 239
0.480436 -0.019066 0.000080 228 213 224
0.480545 -0.021468 0.000075 234 219 231
0.479613 -0.003723 0.000132 226 210 220
0.480032 -0.009701 0.000093 242 232 237
0.480663 -0.024163 0.000071 56 51 65
0.480663 -0.024163 0.000071 56 51 65
0.479937 -0.007850 0.000099 251 243 245
0.479937 -0.007853 0.000099 250 243 244
0.480624 -0.023264 0.000073 77 62 78
0.480070 -0.010524 0.000091 113 98 113
0.480411 -0.018537 0.000081 241 229 236
0.480546 -0.021482 0.000075 235 220 230
0.479944 -0.007983 0.000098 125 107 124
0.479914 -0.007394 0.000100 235 224 231
0.480642 -0.023677 0.000072 238 225 232
0.480735 -0.025826 0.000069 180 169 182
0.479928 -0.007662 0.000099 192 178 188
0.480585 -0.022359 0.000074 239 224 235
0.480493 -0.020288 0.000077 237 221 233
0.479940 -0.007897 0.000099 177 164 174
0.479869 -0.006410 0.000102 206 189 200
0.479824 -0.005634 0.000105 232 220 223
0.480653 -0.023923 0.000072 117 101 113
0.479601 -0.003554 0.000134 193 179 187
0.479604 -0.003577 0.000133 236 223 231
0.479609 -0.003644 0.000133 127 113 123
0.480657 -0.023999 0.000071 232 217 228
0.480021 -0.009468 0.000094 96 76 89
0.480595 -0.022572 0.000073 234 220 228
0.480039 -0.009827 0.000093 253 247 249
0.480049 -0.010026 0.000092 239 227 236
0.480025 -0.009534 0.000093 146 128 139
0.480682 -0.024580 0.000071 124 108 119
0.480030 -0.009630 0.000093 235 219 227
0.480623 -0.023210 0.000073 213 198 209
0.480485 -0.020095 0.000077 80 60 79
0.479884 -0.006729 0.000101 161 144 154
0.479581 -0.003466 0.000137 230 217 223
0.479888 -0.006807 0.000101 113 97 110
0.479888 -0.006807 0.000101 113 97 110
0.480414 -0.018568 0.000080 241 227 238
0.480014 -0.009314 0.000094 56 53 53
0.480014 -0.009314 0.000094 56 53 53
0.479813 -0.005387 0.000106 241 231 237
0.479813 -0.005387 0.000106 241 231 237
0.480545 -0.021435 0.000075 243 228 239
0.479948 -0.008049 0.000098 206 194 205
0.480478 -0.019947 0.000078 232 218 225
0.479836 -0.005685 0.000103 98 85 98
0.480032 -0.009679 0.000093 113 90 105
0.480032 -0.009679 0.000093 113 90 105
0.480017 -0.009361 0.000094 218 203 211
0.479708 -0.005570 0.000127 73 57 72
0.480401 -0.018291 0.000081 239 226 234
0.480563 -0.021826 0.000074 93 76 92
